# .PCD v0.7 - Point Cloud Data file format
VERSION 0.7
FIELDS x y z intensity
SIZE 4 4 4 4
TYPE F F F F
COUNT 1 1 1 1
WIDTH 1409
HEIGHT 1
VIEWPOINT 0 0 0 1 0 0 0
POINTS 1409
DATA ascii
-0.56600463 7.1757579 -2.6198742 9
-0.61443704 7.7897792 -2.6403248 5
-0.67286968 8.5305834 -2.6701496 7
-0.74453181 9.4391098 -2.715028 5
-0.82368273 10.442578 -2.7422066 6
-0.91924632 11.654125 -2.7699394 3
-1.0428107 13.220663 -2.818867 3
-1.1960397 15.163287 -2.8657844 4
-0.3193745 4.2179937 -2.508636 3
-1.3310571 17.579332 -2.8964455 4
-0.33911899 4.4787602 -2.5236509 4
-1.6014935 21.150999 -2.9810879 5
-0.36051604 4.7613521 -2.5389025 4
-1.984086 26.203915 -3.0731153 5
-0.3834894 5.0647621 -2.5512702 6
-1.9420605 25.648882 -2.3997705 18
-0.40767935 5.3842397 -2.5558639 5
-1.9433327 25.665684 -1.7998565 43
-0.43508568 5.7461967 -2.5656948 6
-1.9420414 25.64863 -1.1995233 22
-0.46635649 6.1591916 -2.5800214 5
-1.9464964 25.707466 -0.59856004 20
-0.5018698 6.6282177 -2.5956416 9
-0.54331803 7.1756268 -2.6191902 9
-0.5896771 7.7878923 -2.6390445 5
-0.64650083 8.5383663 -2.6719365 7
-0.71487612 9.4414024 -2.715028 5
-0.79102045 10.447043 -2.7427132 6
-0.88233763 11.653073 -2.769017 5
-1.000831 13.218021 -2.8176196 3
-1.1482514 15.165009 -2.8654139 4
-0.30661845 4.2258391 -2.5127165 3
-1.2751042 17.573584 -2.8948243 4
-0.3249194 4.4780645 -2.522671 4
-1.5340284 21.142097 -2.9791396 5
-0.34581023 4.7659831 -2.5407803 4
-1.9003091 26.190207 -3.0707924 5
-0.36835065 5.0766368 -2.5566564 7
-1.8680942 25.746218 -2.4083164 18
-0.39049906 5.3818884 -2.5541525 5
-1.8652835 25.707479 -1.8023678 43
-0.41636857 5.7384238 -2.5616276 6
-1.8649167 25.702425 -1.2017593 22
-0.44753698 6.1679893 -2.5831046 6
-1.8690451 25.759323 -0.59962773 20
-0.48144674 6.6353359 -2.5978241 8
-0.52090645 7.1791725 -2.6198742 8
-0.56534266 7.7915959 -2.6396847 5
-0.61967117 8.5403557 -2.6719365 7
-0.68520886 9.4436016 -2.715028 5
-0.75791317 10.445618 -2.7417002 6
-0.84572071 11.655788 -2.769017 5
-0.95986295 13.228905 -2.8192828 3
-1.099888 15.15874 -2.8635623 4
-0.29248345 4.2251172 -2.5116966 3
-1.2166799 17.575747 -2.8944998 4
-0.31078911 4.4895544 -2.5285492 4
-1.463631 21.143118 -2.9785829 5
-0.32988051 4.7653422 -2.5398414 4
-1.8127558 26.186457 -3.0696309 5
-0.35138908 5.0760479 -2.5557587 6
-1.7859999 25.79995 -2.4127753 18
-0.37264848 5.3831539 -2.5541525 5
-1.7829105 25.755322 -1.8052975 44
-0.39809248 5.7507095 -2.5665083 6
-1.7867037 25.810118 -1.2065109 15
-0.42695162 6.1675987 -2.5823338 9
-1.7860922 25.801285 -0.60046333 21
-0.45866677 6.6257448 -2.5934591 9
-0.49644569 7.1714864 -2.6164541 9
-0.53949958 7.7934284 -2.6396847 5
-0.59160823 8.5461721 -2.6731279 7
-0.65428483 9.4515772 -2.716682 5
-0.72353446 10.451935 -2.7427132 6
-0.80732977 11.662413 -2.7699394 5
-0.91558009 13.226161 -2.8180354 3
-1.0493382 15.158384 -2.8628218 4
-0.27813438 4.2209139 -2.508636 3
-1.1580127 17.573778 -2.8935273 4
-0.29567322 4.4870801 -2.5265899 4
-1.3937845 21.151806 -2.9791396 5
-0.31407946 4.7664099 -2.5398414 4
-1.7260567 26.194304 -3.0698631 5
-0.33444029 5.0754018 -2.5548611 7
-1.7030706 25.845472 -2.416491 18
-0.35503659 5.3879671 -2.5558639 5
-1.6996093 25.792944 -1.8075297 44
-0.37842345 5.7428818 -2.5624409 6
-1.7030922 25.8458 -1.2079083 15
-0.4061369 6.1634555 -2.5800214 7
-1.7025118 25.836992 -0.60115963 21
-0.43706444 6.6328058 -2.5956416 8
-0.47278985 7.1749682 -2.6171381 9
-0.51328421 7.7895026 -2.637764 5
-1.8502163 28.078527 1.3122553 10
-0.56264299 8.5385618 -2.6701496 7
-0.62269217 9.4498568 -2.7155793 5
-0.6890049 10.456206 -2.7432196 6
-0.76827532 11.659199 -2.7685559 5
-0.87198174 13.233027 -2.818867 3
-0.99868792 15.155896 -2.8617108 4
-0.26508686 4.2252007 -2.5106764 3
-1.10168 17.559601 -2.8906088 4
-0.2811372 4.4810262 -2.522671 4
-1.3252132 21.12248 -2.9744079 5
-0.29932359 4.7708979 -2.5417192 4
-1.6438735 26.201582 -3.0700955 5
-0.31804475 5.069293 -2.5512702 6
-1.6244774 25.892431 -2.4203925 18
-0.33731419 5.3764272 -2.5498743 5
-1.6209364 25.835991 -1.8101804 44
-0.36072141 5.7495131 -2.5648813 7
-1.6240062 25.88492 -1.2094922 15
-0.3867701 6.1647015 -2.5800214 6
-1.6245819 25.894096 -0.60236663 21
-0.41598958 6.6304283 -2.5941868 8
-1.6347879 26.05677 0 16
-0.45036235 7.1782937 -2.6178222 9
-1.7903454 28.53619 0.66382879 10
-0.48833346 7.7835126 -2.6352029 5
-1.7586104 28.030367 1.3097397 20
-0.5362913 8.5479097 -2.6725323 7
-0.5931192 9.4536858 -2.7161305 5
-0.65578598 10.452526 -2.7417002 6
-0.73103052 11.651844 -2.7662501 5
-0.83027846 13.233749 -2.8184512 3
-0.95069587 15.153074 -2.8606 4
-0.25191483 4.2277298 -2.5116966 3
-1.0460434 17.555096 -2.889312 4
-0.2677851 4.4940705 -2.5295286 4
-1.2580279 21.1127 -2.9724593 5
-0.28380966 4.763001 -2.5370245 4
-1.5601377 26.182821 -3.0673077 5
-0.30211851 5.0702667 -2.5512702 6
-1.5449076 25.927223 -2.4231791 18
-0.32096064 5.3864827 -2.5541525 5
-1.5417846 25.874811 -1.8125522 45
-0.34254944 5.7487941 -2.5640678 6
-1.5451789 25.931774 -1.2114487 15
-0.36806101 6.176939 -2.5846465 6
-1.5444195 25.919031 -0.60283083 21
-0.39549112 6.6372814 -2.5963693 8
-1.5549475 26.095716 0 8
-0.42792201 7.1815491 -2.6185062 9
-1.7166295 28.809126 0.67004931 10
-0.46387991 7.785008 -2.6352029 5
-1.6685269 28.001848 1.3081559 10
-0.50977695 8.5552692 -2.6743197 8
-0.56318974 9.451663 -2.715028 5
-0.62271702 10.450672 -2.7406871 6
-0.69442379 11.654082 -2.7662501 5
-0.78870183 13.236292 -2.8184512 3
-0.90203726 15.13833 -2.8572674 4
-0.23872951 4.2302175 -2.5127165 3
-0.99066836 17.554356 -2.8886635 4
-0.25337139 4.4896674 -2.5265899 4
-1.1902475 21.090839 -2.9688408 5
-0.26924375 4.7709212 -2.5407803 4
-1.4795582 26.217342 -3.0707924 5
-0.28639066 5.0747595 -2.5530655 6
-1.4662573 25.981653 -2.4278238 18
-0.30332497 5.3748302 -2.5481627 5
-1.4631919 25.927336 -1.8159006 45
-0.32397375 5.7407207 -2.5600004 6
-1.4655102 25.968414 -1.2129394 15
-0.34813505 6.1688519 -2.5807922 5
-1.465919 25.975658 -0.60403782 21
-0.37400901 6.6273308 -2.5920043 7
-0.40525392 7.1809816 -2.6178222 9
-1.6183467 28.676632 0.66684622 32
-0.43984887 7.7939939 -2.637764 5
-1.582805 28.046844 1.3100193 20
-0.48279136 8.5549221 -2.6737239 8
-0.53295392 9.4437885 -2.7122717 5
-0.5901022 10.45644 -2.7417002 6
-0.65748131 11.650378 -2.7648671 5
-0.74678677 13.232844 -2.8172035 3
-0.85447723 15.141088 -2.8572674 4
-0.22359701 4.224154 -2.508636 3
-0.92854691 17.541939 -2.8860695 4
-0.23778898 4.4922662 -2.5275695 4
-1.1158811 21.081022 -2.9668925 5
-0.25258723 4.771832 -2.5407803 4
-1.3878167 26.21838 -3.0703278 5
-0.26848444 5.0721588 -2.5512702 7
-1.3782854 26.038317 -2.4326541 18
-0.28503779 5.384882 -2.5524409 5
-1.3748875 25.974123 -1.8188303 45
-0.30489719 5.7600622 -2.5681353 7
-1.3760093 25.995319 -1.2139642 15
-0.32708573 6.179244 -2.5846465 5
-1.3772393 26.018557 -0.60491979 21
-0.3511667 6.6341772 -2.5941868 8
-0.37998456 7.1785994 -2.6164541 9
-1.5169607 28.658146 0.66628915 32
-0.41263801 7.7954822 -2.637764 5
-1.489216 28.133997 1.3138391 10
-0.45302483 8.5584621 -2.6743197 8
-0.4998816 9.4436722 -2.7117205 4
-0.55359608 10.458436 -2.7417002 6
-0.61690968 11.654545 -2.7653279 5
-0.70038068 13.231464 -2.8163719 3
-0.80078459 15.128277 -2.8543048 4
-0.21132098 4.2299533 -2.5116966 3
-0.8767935 17.550531 -2.8870423 4
-0.22428592 4.4894686 -2.52561 4
-1.0530349 21.078306 -2.9660573 4
-0.23842868 4.7725606 -2.5407803 4
-1.3095284 26.212463 -3.0691662 5
-0.25316727 5.0675783 -2.5485771 7
-1.2994372 26.010471 -2.4296818 18
-0.26869947 5.3784823 -2.5490184 5
-1.3002086 26.025913 -1.8221786 45
-0.28789762 5.7627664 -2.5689487 7
-0.30829084 6.1709719 -2.5807922 5
-1.3020347 26.062466 -0.60584819 21
-0.3313894 6.6333289 -2.5934591 9
-0.35849732 7.175941 -2.6150861 9
-1.427639 28.576651 0.66429299 31
-0.3887516 7.7815323 -2.632642 5
-1.4021506 28.06646 1.3104851 10
-0.42744035 8.555954 -2.6731279 8
-0.47214898 9.4508743 -2.7133744 4
-0.52256477 10.460033 -2.7417002 6
-0.58242649 11.658269 -2.765789 5
-0.66112149 13.233485 -2.8163719 3
-0.75589734 15.130587 -2.8543048 4
-0.19689094 4.2220387 -2.5065954 3
-0.81738901 17.527714 -2.8828273 4
-0.20907095 4.4832211 -2.5216913 4
-0.98284835 21.075748 -2.9652224 4
-0.22185931 4.7574487 -2.5323298 4
-1.2233304 26.232534 -3.0710247 5
-0.23660953 5.0737457 -2.5512702 7
-1.2147459 26.048452 -2.4328399 18
-0.25128189 5.3883729 -2.5532968 5
-1.2148186 26.050011 -1.8235738 45
-0.26810351 5.7490883 -2.5624409 6
-1.2173007 26.103235 -1.2186226 22
-0.28773779 6.1701169 -2.5800214 5
-1.2174569 26.106586 -0.60677665 21
-0.30956239 6.6381135 -2.5949142 9
-1.2262633 26.295425 0 8
-0.33478463 7.1789675 -2.6157701 9
-1.241115 26.613899 0.61856776 26
-0.36294281 7.7827787 -2.632642 5
-1.3002223 27.881369 1.3016342 10
-0.39888522 8.5535116 -2.6719365 8
-1.3069221 28.025036 1.961831 15
-0.44035572 9.4427853 -2.710618 3
-1.4363594 30.800631 2.8766778 9
-0.48805255 10.465574 -2.7427132 6
-1.4393103 30.863909 3.6132162 9
-0.54366916 11.658192 -2.7653279 5
-1.4378759 30.833149 4.338026 10
-0.61695701 13.229742 -2.8151245 3
-0.70562261 15.131046 -2.8539345 4
-0.18385106 4.2277923 -2.509656 3
-0.76215202 17.526253 -2.882179 4
-0.19491057 4.4821134 -2.5207117 4
-0.91663617 21.078732 -2.9652224 4
-0.20714335 4.7634153 -2.5351465 4
-1.1408312 26.234264 -3.0707924 5
-0.22028148 5.0655365 -2.5467815 6
-1.1343821 26.08596 -2.4359982 12
-0.23419653 5.3855233 -2.5515854 5
-1.134626 26.09157 -1.8262244 46
-0.24996264 5.7480769 -2.5616276 6
-1.1375507 26.158823 -1.2210449 15
-0.26835358 6.17099 -2.5800214 4
-1.1376114 26.160221 -0.60793722 21
-0.28830323 6.6297474 -2.5912769 7
-1.1433921 26.293152 0 24
-0.31223097 7.1799836 -2.6157701 8
-1.2492356 28.727102 0.66758895 21
-0.33873919 7.7895598 -2.6345627 5
-1.125486 25.88139 1.2080947 8
-0.37226212 8.5604448 -2.6737239 8
-1.2192246 28.036978 1.9623891 15
-0.41094059 9.4498844 -2.7122717 4
-1.3378649 30.7652 2.872962 9
-0.45500547 10.463189 -2.7417002 6
-0.50704348 11.659842 -2.7653279 5
-0.57462913 13.214025 -2.8113821 3
-0.65791571 15.129262 -2.853194 4
-0.16996913 4.2318168 -2.5116966 3
-0.70324016 17.508965 -2.8789365 2
-0.1802571 4.4879618 -2.5236509 4
-0.84633833 21.07176 -2.9638307 4
-0.19177231 4.774663 -2.5407803 4
-1.0523993 26.202175 -3.0666108 5
-0.20326817 5.0608816 -2.5440886 6
-0.21626474 5.3844647 -2.5507298 5
-1.050184 26.147018 -1.8298517 46
-0.23163436 5.7671309 -2.5697622 8
-1.0528083 26.212358 -1.223374 15
-0.24759334 6.1644702 -2.5769379 4
-1.0526253 26.207804 -0.60895848 21
-0.26639271 6.6325283 -2.5920043 8
-1.0587683 26.360748 0 16
-0.28872269 7.1884909 -2.6185062 9
-1.0972403 27.318607 0.63476884 9
-0.3127557 7.7868543 -2.6332824 5
-1.0378151 25.839064 1.2059518 16
-0.34356785 8.5540009 -2.6713409 7
-1.1192836 27.86743 1.9502516 15
-0.37952611 9.4492741 -2.7117205 4
-1.2362422 30.779415 2.8738909 9
-0.42030787 10.464641 -2.7417002 6
-0.46837759 11.661459 -2.7653279 5
-0.53230101 13.252997 -2.8192828 3
-0.60766584 15.129396 -2.8528237 4
-0.15549046 4.2203236 -2.5045552 3
-0.6450243 17.507256 -2.878288 2
-0.16543645 4.4902778 -2.5246305 4
-0.77615958 21.066532 -2.9627171 4
-0.17561148 4.766449 -2.5360856 4
-0.96593553 26.217432 -3.0680048 5
-0.18648314 5.0615277 -2.5440886 7
-0.96545357 26.204351 -2.4464021 18
-0.19827339 5.3815389 -2.5490184 5
-0.96493345 26.190235 -1.8326421 46
-0.21277606 5.7751703 -2.5730162 10
-0.96726942 26.253637 -1.2251443 15
-0.22687635 6.1578803 -2.5738547 4
-0.96695542 26.245115 -0.60974759 21
-0.24446371 6.6352367 -2.5927317 8
-0.26446608 7.1781411 -2.6144021 9
-1.0656756 28.924578 0.67199898 10
-0.2868599 7.7859545 -2.632642 5
-0.94711488 25.706604 1.1996166 16
-0.31540832 8.5608168 -2.6731279 8
-1.0262703 27.85504 1.9491354 30
-0.34846961 9.4581661 -2.7139256 4
-0.38567188 10.467911 -2.7422066 6
-0.42984426 11.666838 -2.7662501 5
-0.55741501 15.129365 -2.8524535 4
-0.14280932 4.2379842 -2.5147572 3
-0.58941722 17.491442 -2.8753695 2
-0.15132774 4.4907756 -2.5246305 4
-0.70930046 21.049074 -2.9599338 4
-0.160754 4.7705073 -2.5379634 4
-0.88509762 26.266001 -3.0733476 5
-0.17051938 5.0603032 -2.543191 7
-0.88405693 26.235117 -2.4490032 19
-0.18124257 5.3785224 -2.5473073 5
-0.88405341 26.235012 -1.8355719 46
-0.19426095 5.764854 -2.5681353 18
-0.8860575 26.294485 -1.2269144 15
-0.20765226 6.1622515 -2.5753963 4
-0.88570398 26.283997 -0.61058325 21
-0.22336447 6.6285248 -2.5898218 8
-0.24203853 7.1826925 -2.6157701 9
-0.87163019 25.866344 0.6008811 8
-0.26258746 7.7924991 -2.6345627 5
-0.87623411 26.002968 1.213312 17
-0.28818831 8.5522251 -2.6701496 8
-0.92947555 27.582952 1.9298825 29
-0.3184278 9.4496069 -2.7111692 4
-0.35245535 10.459403 -2.7396741 6
-0.39312088 11.666186 -2.765789 5
-0.44610596 13.238562 -2.8155403 8
-0.50954676 15.121221 -2.8506019 4
-0.1293378 4.233253 -2.5116966 3
-0.53428596 17.487291 -2.874397 2
-0.13711317 4.4877424 -2.522671 4
-0.64281052 21.039322 -2.9582636 4
-0.14560536 4.7656932 -2.5351465 4
-0.80312723 26.28652 -3.0754383 5
-0.15473126 5.0643859 -2.5449862 7
-0.80285394 26.277575 -2.452719 19
-0.1645112 5.3844857 -2.5498743 5
-0.80334038 26.293495 -1.8394781 47
-0.17603871 5.7617836 -2.5665083 12
-0.80522102 26.355049 -1.2296163 15
-0.18823679 6.1610289 -2.5746255 4
-0.80490184 26.344604 -0.61192942 21
-0.20242673 6.6254687 -2.588367 7
-0.80756193 26.431669 0 24
-0.21930146 7.1777821 -2.6137178 9
-0.78658372 25.745049 0.59800297 16
-0.23752816 7.7743459 -2.6281602 5
-0.7948491 26.015575 1.2137779 17
-0.26149586 8.5588131 -2.6719365 8
-0.83721656 27.402271 1.9170475 29
-0.28891736 9.4563246 -2.7128229 4
-0.31941921 10.454657 -2.7381546 6
-0.3568868 11.68098 -2.769017 5
-0.40469539 13.245764 -2.8167877 6
-0.46174237 15.112923 -2.8487504 4
-0.11515746 4.2284999 -2.508636 3
-0.47612712 17.483049 -2.8734243 2
-0.12208689 4.4829435 -2.519732 4
-0.57346362 21.057177 -2.9604905 4
-0.12965539 4.7608538 -2.5323298 4
-0.71762276 26.350597 -3.0826397 5
-0.13793489 5.0648713 -2.5449862 6
-0.71694952 26.325876 -2.4569919 12
-0.14665322 5.3850017 -2.5498743 5
-0.15673044 5.7550302 -2.5632546 8
-0.71710569 26.331612 -1.2284051 23
-0.1680043 6.1689982 -2.5777087 5
-0.71878034 26.393103 -0.61299717 22
-0.18065584 6.6335535 -2.5912769 8
-0.7214241 26.490181 0 16
-0.19549589 7.1784697 -2.6137178 9
-0.69929349 25.677561 0.59637821 24
-0.21210513 7.7883492 -2.632642 5
-0.71721447 26.335606 1.2285913 8
-0.23290212 8.552 -2.6695538 8
-0.73661286 27.047899 1.8920746 14
-0.25713617 9.4418564 -2.7084126 4
-0.28469297 10.453724 -2.737648 6
-0.31756335 11.660701 -2.7639449 5
-0.36060521 13.241166 -2.8155403 3
-0.41124487 15.100618 -2.8461583 4
-0.1020392 4.2357197 -2.5127165 3
-0.42068067 17.462755 -2.8698578 2
-0.10791959 4.4798188 -2.5177727 4
-0.50664401 21.031155 -2.9565938 4
-0.11457144 4.7559419 -2.5295131 4
-0.63575041 26.390453 -3.0870533 5
-0.12189431 5.0599194 -2.5422931 7
-0.6353969 26.375778 -2.4614508 19
-0.1295619 5.3782067 -2.5464513 5
-0.63612115 26.40584 -1.8470119 48
-0.13891482 5.7664533 -2.5681353 8
-0.63582748 26.39365 -1.2312001 23
-0.14849085 6.1639609 -2.5753963 5
-0.63697296 26.441202 -0.61406481 22
-0.15968169 6.6285009 -2.5890944 9
-0.17285396 7.1752906 -2.61235 9
-0.61853021 25.675631 0.59628534 24
-0.18759213 7.7870831 -2.6320016 5
-0.62163389 25.804464 1.2037159 16
-0.20617364 8.5584145 -2.6713409 8
-0.65024757 26.992239 1.8880287 28
-0.22761318 9.4483852 -2.7100668 4
-0.25171247 10.448764 -2.7361288 5
-0.28102461 11.665531 -2.7648671 5
-0.31900764 13.242234 -2.8155403 3
-0.36385307 15.1038 -2.8465285 4
-0.08792188 4.232595 -2.5106764 3
-0.3627733 17.464052 -2.8698578 2
-0.093245335 4.4888682 -2.522671 4
-0.43616322 20.997074 -2.9515831 4
-0.098763816 4.75453 -2.528574 4
-0.54832083 26.396387 -3.087518 5
-0.10511535 5.0602956 -2.5422931 9
-0.61943901 29.820045 -2.782671 8
-0.11187767 5.3858361 -2.5498743 5
-0.11983091 5.7687087 -2.5689487 7
-1.1811684 56.861923 -2.6522741 33
-0.12797418 6.1607289 -2.5738547 4
-0.13785601 6.6364441 -2.5920043 8
-0.57527614 27.694025 0 18
-0.14902128 7.173945 -2.6116657 9
-0.53093857 25.559597 0.59354645 23
-0.16188784 7.7933459 -2.6339226 5
-0.53685325 25.844334 1.2054861 8
-0.1777142 8.555233 -2.6701496 7
-0.55928975 26.924433 1.8831458 27
-0.19632176 9.4510088 -2.710618 4
-0.21706384 10.449541 -2.7361288 5
-0.24262401 11.680018 -2.7680948 5
-0.27489257 13.233438 -2.8134613 3
-0.31372729 15.102959 -2.8461583 4
-0.07441292 4.2208104 -2.503535 3
-0.30784035 17.461159 -2.8692091 2
-0.079082079 4.4856524 -2.5207117 4
-0.37030566 21.004284 -2.9524183 4
-0.084014215 4.7654104 -2.5342076 4
-0.4645212 26.348328 -3.0817106 5
-0.089186929 5.058814 -2.5413954 6
-0.52516258 29.787996 -2.7795126 8
-0.094958059 5.3861613 -2.5498743 5
-0.69081795 39.184216 -2.740453 30
-0.10164409 5.7654028 -2.5673218 8
-1.0009519 56.775471 -2.6480818 33
-0.10855518 6.1574101 -2.5723128 4
-0.11681058 6.6256685 -2.5876396 8
-0.52504581 29.781372 0 22
-0.12664998 7.183774 -2.6150861 9
-0.13720463 7.7824492 -2.6300812 5
-0.45277551 25.682095 1.1978463 8
-0.1507033 8.5481138 -2.6677663 8
-0.48181063 27.32901 1.9113274 14
-0.16636029 9.4362011 -2.7062078 4
-0.18423659 10.450171 -2.7361288 6
-0.20586261 11.676831 -2.7671726 5
-0.23325072 13.230326 -2.8126297 3
-0.26596951 15.086185 -2.8428254 4
-0.060414635 4.221034 -2.503535 3
-0.24964814 17.442352 -2.8659668 2
-0.064205453 4.4858904 -2.5207117 4
-0.30036166 20.985592 -2.9496348 4
-0.068108685 4.7586002 -2.530452 4
-0.37676758 26.323902 -3.0786905 5
-0.072383836 5.0572953 -2.5404978 6
-0.42517397 29.705946 -2.7717097 8
-0.076862052 5.3701787 -2.5421731 5
-0.082549326 5.7675352 -2.5681353 7
-0.81251353 56.76849 -2.6476159 33
-0.088292651 6.1688085 -2.5769379 5
-0.094889924 6.629745 -2.5890944 8
-0.39879844 27.863148 0 9
-0.10282505 7.1841545 -2.6150861 10
-0.37342405 26.090296 0.60580176 25
-0.11161112 7.7980175 -2.6352029 5
-0.37966666 26.526453 1.2371627 17
-0.12249017 8.5581121 -2.6707451 7
-0.39634222 27.691538 1.9365792 30
-0.13520277 9.4463129 -2.7089639 5
-0.14960638 10.452661 -2.7366352 5
-0.16730361 11.689126 -2.7699394 5
-0.18914849 13.215379 -2.809303 3
-0.21596444 15.088949 -2.8431957 4
-0.047173604 4.2229233 -2.5045552 3
-0.19483149 17.441076 -2.8656423 2
-0.050015785 4.4773521 -2.5158134 4
-0.23428121 20.972569 -2.9476864 4
-0.053199138 4.7623219 -2.5323298 4
-0.29393876 26.313038 -3.0772967 5
-0.056476541 5.0557108 -2.5396001 7
-0.33296585 29.806696 -2.7809989 8
-0.060133152 5.3830462 -2.5481627 5
-0.43270239 38.734989 -2.7087834 30
-0.06434916 5.760458 -2.5648813 8
-0.63605165 56.938564 -2.6554418 33
-0.068810456 6.1598282 -2.5730836 4
-0.074104398 6.6337357 -2.5905492 9
-0.30608428 27.40029 0 9
-0.080256253 7.184442 -2.6150861 8
-0.29065818 26.019367 0.60413063 24
-0.087029234 7.7907505 -2.632642 5
-0.29577672 26.477573 1.2348336 8
-0.095605128 8.5584545 -2.6707451 7
-0.31296045 28.015837 1.9591802 31
-0.10554896 9.4486141 -2.7095156 4
-0.11670483 10.447273 -2.7351155 6
-0.13066953 11.697377 -2.7717836 5
-0.14758907 13.211993 -2.8084712 3
-0.16856298 15.089553 -2.8431957 4
-0.033974525 4.2316513 -2.509656 3
-0.1398427 17.417921 -2.8617516 2
-0.035990257 4.482718 -2.5187523 4
-0.16824377 20.955378 -2.9451814 4
-0.038236257 4.7624655 -2.5323298 4
-0.21112148 26.295952 -3.075206 5
-0.040606193 5.0576501 -2.5404978 6
-0.2723932 33.927567 -3.1653857 17
-0.043234508 5.3850164 -2.5490184 5
-0.30883738 38.466827 -2.689949 29
-0.046235535 5.7588053 -2.5640678 7
-0.049441893 6.1581688 -2.5723128 4
-0.053246714 6.6320729 -2.5898218 9
-0.22108635 27.537113 0 9
-0.057637975 7.1790209 -2.6130338 8
-0.20784768 25.888189 0.60106683 16
-0.06250561 7.7853022 -2.6307213 5
-0.21115856 26.30057 1.2265418 17
-0.068638422 8.5491667 -2.6677663 8
-0.22261408 27.727398 1.938951 30
-0.075800329 9.4412088 -2.7073102 4
-0.083864689 10.445654 -2.7346091 5
-0.093870327 11.691893 -2.7704005 5
-0.10604651 13.20848 -2.8076398 3
-0.12107377 15.08018 -2.8413441 4
-0.01992631 4.228301 -2.5076158 3
-0.082187817 17.439999 -2.8653183 2
-0.021068204 4.4706073 -2.5118947 4
-0.098831169 20.971666 -2.9474082 4
-0.022435769 4.7608004 -2.5313909 4
-0.12380335 26.270685 -3.072186 5
-0.02380152 5.0506086 -2.536907 6
-0.15983431 33.91634 -3.1642714 17
-0.025318358 5.3724766 -2.5430288 5
-0.027122322 5.7552724 -2.5624409 8
-0.029082507 6.1712174 -2.5777087 5
-0.031254999 6.6322136 -2.5898218 8
-0.12903911 27.381699 0 9
-0.033814885 7.1754131 -2.6116657 9
-0.11983619 25.428865 0.59038979 23
-0.036698755 7.7873616 -2.6313615 5
-0.12408803 26.331093 1.2279392 8
-0.040280696 8.5474386 -2.6671705 7
-0.12984364 27.552416 1.9266738 29
-0.044529866 9.4490986 -2.7095156 4
-0.049190812 10.438137 -2.7325833 5
-0.055137113 11.699924 -2.7722447 5
-0.062220003 13.202891 -2.8063924 3
-0.071040645 15.074604 -2.8402333 4
-0.0059078974 4.2300639 -2.508636 3
-0.024316389 17.410572 -2.8604546 2
-0.0062560905 4.4793706 -2.5167928 4
-0.029279202 20.963955 -2.9462945 4
-0.0066418168 4.7555509 -2.528574 4
-0.0366579 26.247114 -3.0693984 5
-0.0070539787 5.0506597 -2.536907 7
-0.047300037 33.866901 -3.1596265 17
-0.0075211916 5.3851848 -2.5490184 5
-0.0080534648 5.766293 -2.5673218 10
-0.0086087771 6.163898 -2.5746255 4
-0.009268146 6.6360068 -2.5912769 9
-0.037991505 27.201975 0 17
-0.010021606 7.1754861 -2.6116657 9
-0.035588067 25.48111 0.59159678 23
-0.010865705 7.7798615 -2.6288009 5
-0.036407247 26.067646 1.2156411 8
-0.011937859 8.5475245 -2.6671705 7
-0.036422122 26.078297 1.8235738 12
-0.013189114 9.4434261 -2.7078614 4
-0.01458122 10.440177 -2.7330897 4
-0.016316343 11.682527 -2.7680948 5
-0.018434474 13.199112 -2.8055606 3
-0.021045849 15.06886 -2.8391223 4
0.0073824627 4.2300611 -2.508636 3
0.030364903 17.39872 -2.8585091 2
0.0078236489 4.4828553 -2.5187523 4
0.036573239 20.95602 -2.9451814 4
0.0083057266 4.7590804 -2.530452 4
0.045790091 26.237165 -3.0682368 5
0.0088301916 5.0595927 -2.5413954 7
0.059039727 33.829044 -3.1560967 17
0.0094141979 5.3942204 -2.5532968 5
0.065948464 37.78767 -2.6423752 29
0.010018906 5.7407107 -2.5559332 6
0.099394821 56.952023 -2.6559079 33
0.010738135 6.1528211 -2.5700002 4
0.047963589 27.482553 -0.6380648 8
0.011587905 6.6397281 -2.5927317 8
0.047348227 27.129959 0 17
0.012536042 7.1830001 -2.6144021 10
0.044816032 25.679041 0.59619254 24
0.013590927 7.787436 -2.6313615 5
0.045487244 26.063637 1.2154548 17
0.014917455 8.5475197 -2.6671705 8
0.045154154 25.872782 1.8092039 24
0.016470948 9.4376535 -2.7062078 4
0.018207073 10.432431 -2.7310636 4
0.020412551 11.696143 -2.7713225 5
0.023008263 13.183455 -2.8022339 3
0.026288437 15.062955 -2.8380115 4
0.020639123 4.2231364 -2.5045552 3
0.084942557 17.380777 -2.8555908 2
0.021857055 4.4723473 -2.5128741 4
0.10251105 20.975609 -2.9479649 4
0.023266749 4.7607965 -2.5313909 4
0.12824318 26.240868 -3.0687017 5
0.02467435 5.0488172 -2.5360091 7
0.13661687 27.954273 -2.6080344 14
0.026335616 5.3887415 -2.5507298 9
0.13669065 27.96937 -1.955832 19
0.028144743 5.7589221 -2.5640678 7
0.28292909 57.892395 -2.6997893 32
0.03015065 6.1693668 -2.5769379 5
0.13431987 27.484266 -0.63811123 8
0.032430835 6.6359339 -2.5912769 9
0.132411 27.093679 0 8
0.0350857 7.1791668 -2.6130338 9
0.12562318 25.704767 0.59679604 24
0.03809505 7.7949343 -2.6339226 5
0.12869379 26.333069 1.2280325 17
0.041753963 8.5436134 -2.6659791 7
0.12636499 25.856554 1.8080878 12
0.046132192 9.4394779 -2.706759 4
0.1358967 27.806915 2.5942862 6
0.05097492 10.430388 -2.7305572 4
0.057150759 11.694076 -2.7708614 5
0.06443847 13.185273 -2.8026497 3
0.073623836 15.064764 -2.8383818 4
0.033919383 4.2247705 -2.5055754 3
0.13957375 17.384371 -2.8562393 2
0.036004357 4.4844613 -2.519732 4
0.16838735 20.9732 -2.9476864 4
0.038108774 4.7465734 -2.5238793 4
0.21059582 26.230404 -3.0675402 5
0.040577617 5.0540757 -2.5387022 7
0.22444767 27.955696 -2.6082199 21
0.043205615 5.3814015 -2.5473073 13
0.22429658 27.93688 -1.9535998 38
0.046118319 5.7441888 -2.55756 6
0.22391053 27.888792 -1.3006095 27
0.049471673 6.1618595 -2.5738547 4
0.21873191 27.24378 -0.63254064 7
0.053246871 6.6320729 -2.5898218 9
0.22110304 27.539112 0 27
0.057577785 7.1715031 -2.6102977 9
0.20685303 25.764227 0.59818864 24
0.062521003 7.7871966 -2.6313615 5
0.20867306 25.990917 1.2121009 8
0.068623297 8.5472574 -2.6671705 7
0.20592424 25.648542 1.7935785 11
0.075754248 9.435441 -2.7056565 4
0.22257714 27.722715 2.5864832 6
0.083694071 10.424373 -2.7290378 4
0.093870595 11.691893 -2.7704005 5
0.10577981 13.175223 -2.8005707 3
0.121011 15.072318 -2.8398628 4
0.048608053 4.2194662 -2.5025148 3
0.20026031 17.383778 -2.8562393 2
0.051478259 4.468617 -2.510915 4
0.24173896 20.984369 -2.9493566 4
0.054780144 4.75524 -2.528574 4
0.30195677 26.211632 -3.0654495 5
0.058200143 5.0521164 -2.5378046 7
0.3903949 33.888584 -3.1618559 17
0.061991382 5.381218 -2.5473073 8
0.63378179 55.016003 -3.8473487 38
0.066254713 5.7513008 -2.5608141 7
0.070918135 6.1561131 -2.571542 4
0.31238535 27.116894 -0.62961608 7
0.076462947 6.6374359 -2.5920043 8
0.082634211 7.1731377 -2.6109817 9
0.29778296 25.849321 0.6001848 16
0.089770563 7.7926154 -2.6332824 5
0.29880556 25.938089 1.2096785 17
0.098372675 8.5393295 -2.6647875 7
0.29932094 25.982824 1.8170166 24
0.10866999 9.433197 -2.7051051 5
0.31903237 27.693895 2.5838823 6
0.12012877 10.427887 -2.7300506 4
0.13455096 11.679817 -2.7676337 5
0.15168265 13.16695 -2.7989075 3
0.17328689 15.042326 -2.8343084 4
0.061862838 4.2192926 -2.5025148 3
0.25472406 17.373198 -2.8546183 2
0.065592401 4.4736638 -2.513854 4
0.30736765 20.963703 -2.946573 4
0.069666207 4.7515135 -2.5266962 4
0.38464588 26.234386 -3.0682368 5
0.074018165 5.0483346 -2.5360091 6
0.49702567 33.899136 -3.1629708 17
0.078763112 5.3719587 -2.5430288 5
0.54298258 37.033581 -2.5899184 28
0.084321514 5.7510643 -2.5608141 7
0.84325427 57.513313 -2.6823673 32
0.090175427 6.1503243 -2.5692296 4
0.4038417 27.543617 -0.63955027 8
0.097258769 6.6334367 -2.5905492 8
0.3909615 26.665134 0 25
0.10516749 7.1728425 -2.6109817 9
0.11405539 7.7790332 -2.6288009 5
0.38198474 26.052885 1.2150823 25
0.12525362 8.5427971 -2.6659791 7
0.38465655 26.235113 1.8347348 25
0.13813376 9.4212742 -2.7017975 5
0.15280122 10.421653 -2.7285309 4
0.1711842 11.675446 -2.7667115 5
0.19270037 13.142936 -2.7939177 3
0.22036709 15.029916 -2.8320866 4
0.075239502 4.2259574 -2.5065954 4
0.30901787 17.356525 -2.8520243 2
0.079583555 4.4699488 -2.5118947 4
0.37375036 20.992338 -2.9507484 4
0.084435083 4.7424431 -2.5220015 4
0.46691525 26.225105 -3.0673077 5
0.090099335 5.0605855 -2.5422931 7
0.60323024 33.881477 -3.1614842 17
0.095766902 5.3789148 -2.5464513 5
0.65335047 36.696568 -2.5664804 28
0.10212728 5.7361565 -2.5543063 6
1.2609206 70.8218 -3.303231 47
0.1094956 6.1500106 -2.5692296 4
0.48936859 27.486238 -0.63825047 8
0.11812973 6.6349616 -2.5912769 8
0.47593588 26.731766 0 25
0.12783355 7.1799936 -2.6137178 9
0.48612964 27.304317 0.63402611 9
0.13862678 7.7862144 -2.6313615 5
0.45959324 25.813852 1.2039953 25
0.15202135 8.5385427 -2.6647875 7
0.47079876 26.44323 1.8493836 26
0.16783173 9.4265614 -2.7034514 4
0.18560793 10.424992 -2.7295442 4
0.20744485 11.651501 -2.761178 5
0.23395181 13.14031 -2.7935019 3
0.26751098 15.02522 -2.831346 4
0.088478513 4.2239804 -2.5055754 3
0.3637054 17.363361 -2.8533213 2
0.093771107 4.4766498 -2.5158134 4
0.43956932 20.985121 -2.9499133 4
0.099406525 4.7456856 -2.5238793 4
0.54971242 26.24337 -3.0696309 5
0.1057342 5.04777 -2.5360091 7
0.71028805 33.909279 -3.1642714 17
0.11232302 5.3623214 -2.5387506 5
0.76490712 36.516804 -2.5540636 28
0.12018459 5.7376342 -2.5551195 5
0.12908523 6.1625519 -2.5746255 5
0.13885514 6.6289701 -2.5890944 8
0.55965728 26.718142 0 17
0.15011261 7.1664038 -2.6089296 9
0.57600445 27.498558 0.63857543 9
0.16312535 7.7876344 -2.6320016 5
0.54323465 25.934122 1.2096785 25
0.17888352 8.5399323 -2.6653833 7
0.54404628 25.972868 1.8165982 37
0.19732268 9.4202204 -2.7017975 4
0.218275 10.420487 -2.7285309 4
0.24359748 11.629388 -2.7561057 4
0.27518862 13.137555 -2.7930861 3
0.31442171 15.01055 -2.8287539 4
0.10244269 4.2219443 -2.5045552 3
0.42089596 17.346277 -2.8507276 2
0.10853022 4.4728279 -2.513854 4
0.50968033 21.005323 -2.952975 4
0.11514229 4.7453299 -2.5238793 4
0.63774222 26.283106 -3.0745091 5
0.12251498 5.0491781 -2.536907 7
0.82151693 33.856964 -3.1596265 17
0.13045423 5.3763766 -2.5455959 5
0.88274717 36.380432 -2.5447164 28
0.13947538 5.7481632 -2.5600004 7
1.3101145 53.993412 -2.5186729 37
0.14911616 6.1454854 -2.5676877 4
0.16097109 6.6340604 -2.5912769 8
0.64858902 26.730133 0 17
0.17405736 7.1733813 -2.6116657 8
0.66796029 27.528477 0.63931817 9
0.18903957 7.7908392 -2.6332824 5
0.62976027 25.954149 1.2107034 8
0.20710765 8.5354738 -2.6641917 7
0.62692469 25.837286 1.8072507 24
0.22846505 9.4156713 -2.700695 5
0.25282729 10.419706 -2.7285309 4
0.28229991 11.634354 -2.7574892 4
0.31860781 13.130701 -2.7918384 3
0.36419377 15.009424 -2.8287539 4
0.11649119 4.2233005 -2.5055754 3
0.4785296 17.34873 -2.8513758 2
0.12331521 4.4707003 -2.5128741 4
0.57857502 20.975801 -2.9490781 4
0.13073298 4.7396259 -2.5210626 4
0.72391796 26.245102 -3.0703278 5
0.13940722 5.0541039 -2.5396001 7
0.93291706 33.822208 -3.1566541 17
0.14823386 5.3741074 -2.5447402 5
1.3214657 47.908749 -3.3513801 43
0.15858819 5.7494955 -2.5608141 7
1.477548 53.567394 -2.4990149 38
0.16975062 6.154181 -2.571542 4
0.72975743 26.456806 -0.61448264 7
0.18291999 6.6316271 -2.5905492 8
0.74451232 26.991734 0 8
0.19779436 7.170886 -2.6109817 9
0.76812792 27.847902 0.64679205 9
0.21498051 7.7939572 -2.6345627 5
0.71649206 25.975882 1.2118214 8
0.23546617 8.5366488 -2.6647875 7
0.70248592 25.4681 1.7815803 34
0.25963688 9.41294 -2.7001438 4
0.70121145 25.421894 2.3726461 5
0.28738177 10.418811 -2.7285309 4
0.32158005 11.658643 -2.7634838 5
0.36209872 13.127617 -2.7914226 3
0.41364381 14.996346 -2.8265321 4
0.12991619 4.2280722 -2.508636 4
0.5324204 17.327415 -2.8481333 2
0.13730529 4.4685478 -2.5118947 4
0.64464802 20.97982 -2.9499133 4
0.14578409 4.7444873 -2.5238793 4
0.8051405 26.202988 -3.0656817 5
0.15500903 5.0447092 -2.5351114 6
1.0367762 33.741482 -3.1494086 17
0.16483775 5.3645811 -2.5404618 5
0.1764244 5.7416639 -2.55756 7
1.655021 53.862019 -2.5129898 37
0.18896915 6.1499281 -2.5700002 4
0.80789107 26.292503 -0.61072248 7
0.20403779 6.6403308 -2.5941868 9
0.79170829 25.765841 0 7
0.22032 7.1702294 -2.6109817 9
0.89773178 29.216333 0.67863727 22
0.239347 7.7894559 -2.6332824 5
0.79741412 25.951534 1.2107965 8
0.2620475 8.5282345 -2.6624048 8
0.78585809 25.575449 1.7892536 35
0.28920537 9.4120779 -2.7001438 4
0.77782679 25.314074 2.3627994 10
0.32034767 10.425591 -2.7305572 4
0.35802358 11.651739 -2.7621002 6
0.40291545 13.112727 -2.7885118 3
0.46069092 14.993009 -2.8261619 4
0.14296669 4.2207665 -2.5045552 3
0.5867247 17.321712 -2.8474851 2
0.15122619 4.4646091 -2.5099351 4
0.71062791 20.979673 -2.9501917 4
0.16068996 4.7440057 -2.5238793 4
0.88786662 26.212244 -3.0670755 5
0.1707371 5.0406246 -2.5333161 7
1.1410298 33.686314 -3.144578 17
0.18187538 5.3694568 -2.5430288 5
1.8106979 53.456741 -3.7402027 40
0.19452497 5.7429075 -2.5583737 7
1.8265401 53.924442 -2.5161574 37
0.20829053 6.1493039 -2.5700002 4
0.89787281 26.507652 -0.61578244 14
0.2244584 6.6266236 -2.5890944 8
0.87028778 25.693268 0 15
0.24284688 7.1695018 -2.6109817 9
0.99202597 29.28731 0.68035489 11
0.26388347 7.7905593 -2.6339226 5
0.88192254 26.036757 1.214896 17
0.28884086 8.5273695 -2.6624048 7
0.87039661 25.696482 1.7979034 36
0.31851521 9.4034367 -2.6979384 4
0.86146879 25.432907 2.3741322 10
0.35270903 10.412931 -2.7275181 4
0.39463013 11.650558 -2.7621002 7
0.444112 13.111398 -2.7885118 3
0.50726253 14.975773 -2.8231995 4
0.15696363 4.2202692 -2.5045552 4
0.64387375 17.311783 -2.8461881 2
0.16603178 4.4640832 -2.5099351 4
0.77968562 20.963346 -2.9482434 4
0.17635643 4.7416821 -2.5229402 4
0.97301996 26.16151 -3.0615003 5
1.2485222 33.56892 -3.1339884 16
0.19968162 5.368824 -2.5430288 5
1.3222247 35.550552 -2.4876554 27
0.21336594 5.7367535 -2.5559332 8
1.9787822 53.203362 -2.4828038 38
0.22854573 6.1448913 -2.5684588 4
0.24677986 6.6351509 -2.5927317 9
0.26641291 7.163023 -2.6089296 8
1.081643 29.08205 0.67566627 22
0.28929606 7.7782803 -2.6300812 5
0.9704935 26.093582 1.2176909 17
0.31697744 8.5225477 -2.6612129 8
0.96087641 25.835009 1.8078088 24
0.35005626 9.4119349 -2.700695 4
0.99924695 26.866674 2.5082681 6
0.38738433 10.415572 -2.7285309 4
0.43268719 11.633627 -2.7584114 4
0.48715588 13.098123 -2.7860169 3
0.55670619 14.968116 -2.8220885 4
0.17028973 4.2214737 -2.5055754 4
0.69849229 17.315588 -2.8471606 2
0.1800544 4.4635396 -2.5099351 4
0.84449816 20.935066 -2.9446247 4
0.1911799 4.7393398 -2.5220015 4
1.0553589 26.162294 -3.061965 5
0.20400503 5.0572743 -2.5422931 12
1.3572601 33.646408 -3.1416056 17
0.21625479 5.3609452 -2.5396061 5
1.4264177 35.360825 -2.4746807 27
0.2313863 5.7360544 -2.5559332 7
0.2479969 6.1478305 -2.5700002 4
1.0595243 26.265554 -0.61030465 21
0.26784754 6.6399274 -2.5949142 9
1.0422364 25.836988 0 15
0.28898925 7.1640286 -2.6096137 9
1.1286712 27.9797 0.65013444 10
0.31311834 7.762188 -2.6249595 5
1.0497211 26.022533 1.2145232 25
0.34367165 8.5196028 -2.6606174 7
1.0449246 25.903627 1.8128312 37
0.37915617 9.3992624 -2.6973872 4
1.0834804 26.859423 2.5078967 12
0.42010185 10.414303 -2.7285309 4
0.46938774 11.636099 -2.7593336 4
0.52829987 13.096527 -2.7860169 3
0.60309047 14.950583 -2.8191259 4
0.18436188 4.2226043 -2.5065954 4
0.75530303 17.299376 -2.8448911 2
0.19454993 4.4559498 -2.5060165 4
0.91330779 20.918301 -2.9426763 4
0.20674007 4.7351518 -2.5201235 4
1.1415854 26.146744 -3.060571 5
0.22069548 5.0547848 -2.5413954 12
1.4656943 33.570099 -3.1349173 16
0.23434547 5.3674226 -2.5430288 5
1.5367017 35.196445 -2.4635196 27
0.25024593 5.7316051 -2.5543063 6
2.3659489 54.18943 -2.5294802 37
0.26854226 6.1506624 -2.571542 4
1.1452175 26.229937 -0.60956192 21
0.28945726 6.6296973 -2.5912769 9
1.1305212 25.893333 0 15
0.31282496 7.1649084 -2.6102977 9
0.33910334 7.7667856 -2.6268799 5
1.1407098 26.126688 1.2195542 17
0.37216994 8.5241394 -2.6624048 7
1.1317706 25.921949 1.814366 24
0.41032133 9.397954 -2.6973872 4
1.1761863 26.939241 2.5156996 6
0.45463255 10.412853 -2.7285309 4
0.50746024 11.622812 -2.7565668 4
0.57138264 13.086885 -2.7843535 3
0.65189052 14.930829 -2.8157933 4
0.19730613 4.2151308 -2.5025148 3
0.80845225 17.271292 -2.8406761 2
0.20903817 4.4657669 -2.5118947 4
0.97893327 20.913347 -2.9423978 4
0.22145118 4.7309508 -2.5182457 4
1.2245655 26.160889 -3.0626619 5
0.23665945 5.0558515 -2.5422931 10
1.574419 33.634953 -3.1414196 17
0.2512081 5.3666601 -2.5430288 5
1.6413065 35.063896 -2.454591 27
0.26842356 5.7344408 -2.5559332 7
2.5321767 54.095917 -2.5254741 37
0.28795183 6.1516314 -2.5723128 5
1.2419271 26.531792 -0.61666441 15
0.3104597 6.6324763 -2.5927317 9
1.2085962 25.819731 0 23
0.3355104 7.1676445 -2.6116657 9
1.2688524 27.107008 0.63003385 18
0.36394691 7.7751451 -2.6300812 5
1.1948601 25.526279 1.1916974 16
0.39868206 8.5172062 -2.6606174 8
1.2437136 26.569958 1.8599867 26
0.43975657 9.3946981 -2.696836 4
1.2366112 26.418226 2.4673958 5
0.48743665 10.413306 -2.7290378 4
0.54361117 11.613385 -2.7547224 4
0.61277163 13.090889 -2.7856011 3
0.69879812 14.928707 -2.8157933 4
0.21093757 4.2075815 -2.4984341 3
0.8659156 17.272457 -2.8413243 2
0.22393246 4.4667912 -2.5128741 4
1.0454983 20.854603 -2.9346042 4
0.23740266 4.7354817 -2.5210626 4
1.3083223 26.097164 -3.0556927 5
0.25333348 5.0532541 -2.5413954 10
1.6823517 33.557945 -3.1347315 16
0.2689116 5.3639922 -2.5421731 5
1.7572669 35.05228 -2.4541724 27
0.28716257 5.728045 -2.5534928 7
2.728246 54.420444 -2.541033 36
0.30853337 6.1543293 -2.5738547 5
1.3306986 26.543505 -0.61703581 7
0.33245078 6.6314106 -2.5927317 9
1.2966092 25.863522 0 23
0.35918182 7.1646161 -2.6109817 8
1.3584298 27.096661 0.62989455 18
0.38915744 7.7625413 -2.6262398 5
1.2941011 25.813496 1.2052996 8
0.42653987 8.5082102 -2.6582346 7
1.3448969 26.826721 1.8782628 27
0.47081003 9.3912687 -2.6962848 3
1.3241055 26.411993 2.4672101 5
0.52206057 10.413566 -2.7295442 4
0.58192235 11.607632 -2.7537999 4
0.65519708 13.069246 -2.7814429 3
0.74701732 14.900789 -2.8109794 4
0.224978 4.2223582 -2.5076158 4
0.920066 17.267681 -2.8410001 3
0.23712838 4.4503951 -2.5040572 4
1.112692 20.88286 -2.9390578 4
0.25237149 4.7364759 -2.5220015 4
1.389029 26.06912 -3.0529051 5
0.26901636 5.0488644 -2.5396001 10
1.7896696 33.588291 -3.1380756 17
0.28576073 5.363121 -2.5421731 5
1.8571805 34.855328 -2.440779 27
0.30525243 5.7289386 -2.5543063 7
2.8935547 54.305866 -2.5360951 37
0.32796326 6.1551723 -2.5746255 5
0.35318193 6.6284733 -2.5920043 9
1.3719976 25.749475 0 23
0.38178694 7.1653285 -2.6116657 9
1.4530129 27.26996 0.63402611 28
0.41414565 7.7726331 -2.6300812 5
1.3991026 26.258179 1.2262622 26
0.45316392 8.5049229 -2.6576388 7
1.4351085 26.933933 1.8860756 27
0.50051397 9.3935823 -2.6973872 4
0.55518287 10.419601 -2.73157 5
0.61755532 11.590199 -2.7501111 4
0.69677001 13.076891 -2.7835219 3
0.79392755 14.900331 -2.8113496 4
0.23765942 4.2113256 -2.5014946 4
0.97430605 17.264706 -2.8410001 2
0.25110766 4.4496279 -2.5040572 4
1.1782877 20.879263 -2.9390578 4
0.26774687 4.7444754 -2.5266962 4
1.4704679 26.056694 -3.051976 5
0.28467408 5.0444255 -2.5378046 6
1.8911357 33.510929 -3.1313875 16
0.30230144 5.356782 -2.5396061 5
1.9500285 34.554508 -2.420131 26
0.32314485 5.7261276 -2.5534928 7
0.34677756 6.1448994 -2.5707712 4
1.4672468 25.999615 -0.60459483 14
0.37431777 6.6329112 -2.5941868 9
1.472713 26.096478 0 24
0.40408242 7.1603413 -2.6102977 9
1.4940591 26.474731 0.6156432 17
0.43749294 7.7523756 -2.6236787 5
1.4689755 26.030251 1.2158275 17
0.48009411 8.507268 -2.6588302 7
1.5158895 26.861565 1.881332 13
0.52947879 9.3823652 -2.6946309 4
0.5879122 10.417806 -2.73157 4
0.65396166 11.588202 -2.7501111 4
0.73707473 13.060966 -2.7806113 3
0.84062076 14.895802 -2.8109794 4
0.25193241 4.2156658 -2.5045552 4
1.0312041 17.255468 -2.8400276 3
0.26596704 4.4505115 -2.5050368 4
1.2483522 20.889078 -2.9410064 4
0.28337461 4.7417979 -2.5257571 4
1.5546227 26.014 -3.0475621 5
0.30129522 5.0416694 -2.536907 6
2.0091507 33.619762 -3.1421628 17
0.32017282 5.3575549 -2.5404618 5
2.0536644 34.364628 -2.4072959 26
0.34202421 5.7232008 -2.5526793 6
3.3496625 56.050976 -2.6185477 34
0.36748484 6.1492414 -2.5730836 5
1.5590698 26.088413 -0.60677665 7
0.39609075 6.6279135 -2.5927317 8
1.5415934 25.795979 0 23
0.42782673 7.1589618 -2.6102977 9
1.5595468 26.096397 0.60696232 25
0.46320048 7.7508821 -2.6236787 5
1.5536256 25.997316 1.2145232 17
0.5080772 8.5018187 -2.6576388 7
1.5948482 26.687105 1.8694735 27
0.56059152 9.380558 -2.6946309 3
0.62199694 10.408074 -2.7295442 5
0.69169253 11.574313 -2.7473445 4
0.77991915 13.050637 -2.7789478 3
0.88860953 14.869389 -2.8065357 4
0.26536825 4.2062225 -2.4994543 4
1.0885406 17.253925 -2.8403516 2
0.28127205 4.4583058 -2.5099351 4
1.315866 20.857149 -2.9371092 4
0.29854056 4.7320209 -2.5210626 4
1.6403742 26.000771 -3.046633 5
0.31744871 5.0317245 -2.5324185 7
2.1203694 33.60894 -3.1417913 17
0.33816394 5.3600717 -2.5421731 5
2.1581821 34.20829 -2.3968325 26
0.36100003 5.7220354 -2.5526793 7
0.38694367 6.133255 -2.5669169 4
1.7698263 28.052652 -0.65259475 8
0.41771433 6.620986 -2.5905492 9
1.6264929 25.780745 0 23
0.45108962 7.1500015 -2.6075616 8
0.48997301 7.7663231 -2.629441 5
1.6420864 26.02791 1.2162002 17
0.53662634 8.5058022 -2.659426 8
1.6874774 26.747379 1.8740774 27
0.59096748 9.367137 -2.6913235 3
0.65748048 10.421402 -2.7335961 6
0.73006827 11.571956 -2.7473445 4
0.8241753 13.063601 -2.7822745 3
0.93716788 14.854591 -2.8043139 4
0.27869806 4.2070847 -2.5004745 4
1.1426225 17.248449 -2.8400276 2
0.29516494 4.4556599 -2.5089555 4
1.3803526 20.837103 -2.9348826 4
0.31364217 4.7345829 -2.5229402 4
1.7195748 25.957829 -3.0422192 5
0.33278602 5.0235691 -2.5288277 7
2.2247853 33.584232 -3.1401191 17
0.35560292 5.3680015 -2.5464513 6
2.3645742 35.694412 -2.501467 27
0.37897888 5.7208729 -2.5526793 7
3.7624249 56.795658 -2.654417 33
0.40670249 6.1393743 -2.5700002 5
0.43876401 6.6233587 -2.5920043 8
1.7174118 25.925177 0 23
0.47405207 7.1560497 -2.6102977 9
1.8777934 28.346216 0.659558 20
0.51324785 7.7477288 -2.6236787 5
1.7291493 26.102362 1.219927 17
0.56259465 8.4926443 -2.6558514 7
1.7542424 26.481153 1.8558012 39
0.62065345 9.3690691 -2.692426 3
0.69048059 10.423145 -2.7346091 6
0.76642776 11.569605 -2.7473445 4
0.86444563 13.049232 -2.7797797 3
0.98410136 14.855494 -2.8050544 4
0.29179373 4.2044721 -2.4994543 4
1.195025 17.219181 -2.8358123 3
0.30855691 4.4460139 -2.5040572 4
1.446352 20.840567 -2.9359958 4
0.32790259 4.7247667 -2.5182457 4
1.8004227 25.94239 -3.0410578 5
0.34881291 5.0260649 -2.5306232 7
2.3243475 33.491653 -3.1321306 16
0.37121266 5.348824 -2.5378947 5
2.3498888 33.85968 -2.3733943 26
0.39720151 5.723299 -2.5543063 7
0.42573118 6.1343846 -2.5684588 4
0.45943949 6.6200895 -2.5912769 9
1.798014 25.907684 0 23
0.49600932 7.1470261 -2.6075616 9
1.9683537 28.36212 0.66006863 31
0.53837115 7.7574201 -2.6275201 5
1.8076807 26.046972 1.2175977 8
0.58927071 8.4908352 -2.6558514 7
1.8312058 26.385948 1.8495232 26
0.64968306 9.3613195 -2.6907718 3
0.72281867 10.415134 -2.7330897 6
0.8014214 11.547727 -2.7427332 4
0.90407985 13.026937 -2.7756212 3
1.0302193 14.844489 -2.8035734 4
0.30500022 4.2035346 -2.4994543 3
1.2489686 17.213375 -2.8354881 3
0.32277444 4.4485006 -2.5060165 4
1.510667 20.82012 -2.9337692 4
0.34363788 4.7360415 -2.5248182 4
1.8811903 25.926699 -3.0398962 5
0.36447069 5.0231609 -2.5297253 7
2.4234941 33.400768 -3.1243277 16
0.38762116 5.3422222 -2.5353277 5
2.4425278 33.66309 -2.3601406 26
0.41517872 5.7220225 -2.5543063 7
0.44566742 6.14222 -2.5723128 5
0.48036841 6.6204715 -2.5920043 9
1.8793916 25.901907 0 23
0.51737046 7.1304364 -2.6020892 9
1.9748189 27.217096 0.63356191 9
0.5624634 7.7519107 -2.6262398 5
1.905544 26.262344 1.2279392 8
0.61607909 8.4908457 -2.6564472 7
1.8963265 26.135307 1.8323631 12
0.67936575 9.3630676 -2.6918747 3
0.75539321 10.410883 -2.7325833 6
0.83755261 11.54321 -2.7422721 4
0.94485664 13.022081 -2.7752054 3
1.0762779 14.833337 -2.8020921 4
0.31893709 4.2025003 -2.4994543 3
1.3063384 17.213074 -2.8361366 3
0.33739159 4.4456673 -2.5050368 4
1.5808952 20.830791 -2.9359958 4
0.36014208 4.745441 -2.530452 5
1.9665495 25.912397 -3.0389671 5
0.38085461 5.0183611 -2.52793 7
2.5250425 33.271423 -3.1129947 16
0.40560699 5.3445129 -2.5370393 5
2.5408516 33.479733 -2.3478634 26
0.43387368 5.7169714 -2.5526793 7
0.46505445 6.1278272 -2.5669169 4
0.50203669 6.6151266 -2.5905492 9
1.9722319 25.98727 0 24
0.54229152 7.1455479 -2.6082456 8
2.0260201 26.696014 0.62158513 18
0.58787823 7.7462249 -2.6249595 5
1.993978 26.273811 1.2287778 17
0.64394164 8.4849491 -2.6552556 7
1.9715041 25.97768 1.8217601 25
0.70953625 9.3492613 -2.6885669 3
0.7903499 10.414108 -2.7341025 6
0.87582433 11.540369 -2.7422721 4
0.98729134 13.009123 -2.7731264 3
1.1251605 14.825767 -2.8013515 4
0.33273664 4.1997046 -2.4984341 4
1.3621696 17.192907 -2.8335426 3
0.35185787 4.4410472 -2.5030775 4
1.6480925 20.801743 -2.9326558 4
0.37559891 4.7406998 -2.528574 5
2.0507486 25.883951 -3.0364118 5
0.39664844 5.0063806 -2.5225437 6
2.629236 33.185448 -3.1057494 16
0.42375761 5.3485451 -2.5396061 5
2.6395788 33.315994 -2.3369815 25
0.4526867 5.7136793 -2.5518658 8
0.48624873 6.1372895 -2.571542 5
0.52470803 6.6227117 -2.5941868 9
2.0888917 26.365381 0 16
0.56583756 7.1418366 -2.6075616 8
2.0638514 26.049328 0.60668379 25
0.61371422 7.7461214 -2.6255996 5
2.060904 26.012131 1.2168524 17
0.67192686 8.4808645 -2.65466 7
2.0609546 26.012766 1.8246899 25
0.74053824 9.3468571 -2.6885669 3
0.82366037 10.396001 -2.7300506 6
0.91439933 11.541282 -2.7431943 4
1.0315108 13.019429 -2.776037 3
1.1730804 14.806279 -2.798389 4
0.34592795 4.1986389 -2.4984341 4
1.4156864 17.182642 -2.8325698 3
0.36609361 4.4433961 -2.5050368 4
1.7121301 20.780674 -2.9304292 4
0.38976452 4.7306972 -2.5238793 6
2.1284618 25.833826 -3.031301 5
0.41310725 5.0140157 -2.5270321 7
2.7244785 33.067871 -3.095531 16
0.44115117 5.3543935 -2.5430288 6
2.7280056 33.110683 -2.3231695 51
0.47078347 5.7140508 -2.5526793 10
0.50567752 6.1375709 -2.5723128 5
0.54520404 6.6173167 -2.5927317 9
2.1909199 26.591898 0 17
0.58827013 7.1400242 -2.6075616 8
2.1345081 25.907213 0.60352713 16
0.63773358 7.7403779 -2.6243188 5
2.1330938 25.890045 1.2114487 8
0.69840854 8.4768085 -2.6540642 7
2.1428246 26.008152 1.8248293 25
0.77005464 9.3464012 -2.6891181 3
0.8563143 10.393362 -2.7300506 6
0.95017117 11.532534 -2.741811 4
1.0716019 13.006376 -2.7739582 3
1.2189417 14.794686 -2.7969077 4
0.35896924 4.1958179 -2.4974139 4
1.4689841 17.170246 -2.8312728 2
0.37975299 4.4387493 -2.5030775 4
1.7782462 20.785059 -2.9318209 4
0.40402144 4.7224116 -2.5201235 4
2.2021551 25.739927 -3.02108 11
0.4287039 5.0109124 -2.5261345 7
2.815613 32.910339 -3.0815971 15
0.45704466 5.3421745 -2.5378947 5
2.8189111 32.948887 -2.312427 25
0.48810822 5.7052612 -2.5494254 7
0.52495557 6.135952 -2.5723128 5
0.56646538 6.62114 -2.5949142 10
2.2403476 26.186342 0 16
0.61085707 7.1400132 -2.6082456 9
2.2025883 25.744989 0.59990627 16
0.66236913 7.7421131 -2.6255996 5
2.2130518 25.867294 1.2107034 17
0.7247085 8.470768 -2.6528726 7
2.2379515 26.158335 1.8358508 25
0.79924774 9.34202 -2.6885669 3
0.8876403 10.375198 -2.7259986 6
0.986063 11.525614 -2.7408888 4
1.1126215 13.004895 -2.774374 3
1.2650766 14.786869 -2.7961671 4
0.37349153 4.201458 -2.5014946 4
1.5238223 17.141689 -2.8273821 2
0.39416277 4.4339919 -2.5011182 4
1.8466418 20.77313 -2.9309857 4
0.42030609 4.7280817 -2.5238793 4
2.2774808 25.619698 -3.0078387 11
0.44500321 5.0059028 -2.524339 6
2.9104586 32.740154 -3.0665488 15
0.47395864 5.3316269 -2.5336165 5
2.9170372 32.814156 -2.3036377 25
0.50799716 5.7145305 -2.5543063 7
0.54481173 6.1286626 -2.5700002 5
0.58776081 6.6118026 -2.5920043 9
2.3245232 26.148884 0 8
0.63436645 7.1360765 -2.6075616 8
2.3042448 25.920771 0.604177 8
0.686867 7.7266626 -2.6211178 5
2.3543727 26.484665 1.2399578 9
0.75245893 8.4645147 -2.6516812 7
2.3446534 26.375332 1.8516158 26
0.8307358 9.3450623 -2.6902206 4
0.92221498 10.374125 -2.726505 6
1.0239365 11.518403 -2.7399666 4
1.1547054 12.989442 -2.771879 3
1.3149787 14.792379 -2.7980187 4
0.3866311 4.1916313 -2.4963937 4
1.5813795 17.144403 -2.8286788 2
0.40966412 4.4413414 -2.5060165 4
1.9131486 20.741251 -2.9273672 4
0.43565732 4.723145 -2.5220015 4
2.3516562 25.495298 -2.994133 10
0.46192825 5.0079589 -2.5261345 6
3.0076666 32.607384 -3.0550301 15
0.49213341 5.3354259 -2.5361836 5
3.0100708 32.63345 -2.2916396 25
0.52627206 5.7055373 -2.5510523 7
0.56513089 6.1268225 -2.5700002 5
0.60985285 6.6116719 -2.5927317 9
2.455673 26.622988 0 17
0.65819824 7.1358047 -2.6082456 9
2.4085484 26.112089 0.60881919 8
0.71161407 7.7149086 -2.6179166 5
2.4623656 26.695545 1.2502061 18
0.78052247 8.4619732 -2.6516812 7
2.4302669 26.347548 1.8502208 26
0.86136562 9.3384285 -2.6891181 3
0.9560765 10.365229 -2.7249856 6
1.0605161 11.497502 -2.7358165 4
1.1977711 12.985541 -2.771879 3
1.3627583 14.774238 -2.7954264 4
0.39906746 4.1904655 -2.4963937 4
1.6300009 17.11606 -2.8247883 3
0.42218018 4.4331636 -2.5020978 4
1.9778789 20.769003 -2.9320991 4
0.4503403 4.7288628 -2.5257571 5
2.4180715 25.391308 -2.9827499 10
0.47729495 5.0119042 -2.5288277 7
3.0932727 32.481354 -3.0440688 14
0.50727779 5.3267436 -2.5327609 5
3.089113 32.437675 -2.2785254 25
0.54337329 5.7057691 -2.5518658 8
0.582784 6.1196074 -2.5676877 4
0.62946934 6.6098332 -2.5927317 8
2.551537 26.792782 0 17
0.67919165 7.1319494 -2.6075616 8
2.6355808 27.675297 0.64544582 29
0.73450381 7.7127628 -2.6179166 5
2.5307741 26.574757 1.2448956 18
0.80526668 8.4558191 -2.6504898 7
2.5400257 26.671906 1.8735194 27
0.88925445 9.3377447 -2.6896694 3
0.98682964 10.362347 -2.7249856 6
1.0937063 11.48462 -2.733511 4
1.2350003 12.968298 -2.7689681 3
1.4060338 14.76426 -2.7943156 4
0.41279379 4.187407 -2.4953735 4
1.687143 17.114489 -2.8254366 3
0.43756416 4.4386797 -2.5060165 4
2.0475233 20.770212 -2.9332123 4
0.46515441 4.7185569 -2.5210626 4
2.4936912 25.296167 -2.9725287 10
0.49356306 5.0067358 -2.5270321 6
